# .PCD v0.7 - Point Cloud Data file format
VERSION 0.7
FIELDS x y z
SIZE 4 4 4
TYPE F F F
COUNT 1 1 1
WIDTH 256
HEIGHT 1
VIEWPOINT 0 0 0 1 0 0 0
POINTS 256
DATA ascii
1.8360465 0.11954696 -0.2560569
1.7667999 0.15213259 -0.66892332
1.7958539 0.12208688 -0.49894217
1.7096475 0.036437918 -0.51503056
2.2825596 0.0010046723 -1.5985563
1.2820144 -0.2531485 1.0403116
1.9152974 0.16292375 0.12987727
1.9287558 0.15102105 0.099136993
1.882414 0.17739128 -0.030916948
1.9220452 0.13567984 0.10277522
1.9737233 0.19160682 -0.1416332
1.8523 0.19469859 -0.18085772
1.8531229 0.18363236 -0.13327503
1.8801419 0.16407703 -0.049722314
1.8888716 0.15869972 -0.038719065
1.9556752 0.26612216 -0.57329637
1.8910772 0.14268464 -0.0465797
1.8610497 0.22245486 -0.43222997
1.8312135 0.1818503 -0.2410057
1.8775883 0.13872612 -0.045847464
1.8668197 0.14840528 -0.11921271
1.809866 0.18364154 -0.30216366
1.8393348 0.18892311 -0.33477166
1.9188213 0.10705589 0.049028136
1.8163685 0.16566809 -0.26548469
1.8260332 0.15760222 -0.2535373
1.905212 0.1086636 -0.014529862
1.8409696 0.14626613 -0.21145575
1.9100847 0.088396177 0.04937334
1.8199074 0.17338029 -0.40392551
1.8388442 0.17692807 -0.41714689
1.930321 0.10125263 -0.043679554
1.7617335 0.19221124 -0.54706031
1.8048671 0.18946795 -0.54221123
1.812122 0.1722459 -0.43879786
1.763652 0.1982543 -0.61464268
1.8018279 0.17073248 -0.45496655
1.8298042 0.1521883 -0.37792489
1.7972914 0.1857899 -0.56877446
1.9207195 0.064049982 0.055672783
1.9123471 0.065769747 0.029354936
1.9218367 0.058089059 0.022535333
1.9315691 0.050323091 0.05607295
1.7807419 0.17284051 -0.66008836
1.9226342 0.043832213 0.048721656
1.9052182 0.046644405 0.014880715
1.9066521 0.04406276 0.030963661
1.9019589 0.047982536 -0.018023429
1.7902921 0.15038745 -0.62684691
1.8598205 0.090538941 -0.29070571
1.7756788 0.16043587 -0.7136935
1.9523712 0.053458922 -0.1606019
1.8942676 0.02994458 -0.0018339006
1.8106898 0.099121518 -0.45278648
1.9218631 0.010043398 0.082116544
1.9193749 -0.0078511098 0.10161828
1.8866193 0.016334865 -0.057774674
1.9134775 -0.0070325565 0.080464177
1.883633 0.00049580465 -0.054649312
1.8341287 0.024574956 -0.23142807
1.8474673 0.016973613 -0.1911132
1.9131984 -0.02834589 0.10299752
1.9287541 -0.027844416 0.095783785
1.7997668 0.074639887 -0.63932717
1.8107294 0.033908952 -0.38688573
1.8366582 0.0081189135 -0.21119918
1.9361131 -0.030328134 0.055827763
1.8678951 -0.023406079 -0.029188156
1.9254595 -0.038864434 0.0341723
1.8254516 0.025853958 -0.43682218
1.7724996 0.062434051 -0.75279087
1.7756337 0.060405113 -0.70575571
1.9239483 -0.048653994 0.02834674
1.7724203 0.034498267 -0.76077092
1.804879 0.018057069 -0.6317144
1.8311005 -0.026505733 -0.2651684
1.7928098 0.027558202 -0.74312645
1.8375125 -0.015622778 -0.38563332
1.8232481 0.028164735 -0.78602999
1.780365 0.0064197723 -0.70454866
1.7963552 -0.0017682451 -0.63818043
1.849803 -0.030683994 -0.38400668
1.7985989 0.0066579767 -0.84621376
1.7339258 -0.028213086 -0.73557103
1.8447657 -0.067776136 -0.43970141
1.851193 -0.07674294 -0.34051889
1.822518 -0.10136125 -0.27343196
2.1173692 -0.044605907 -1.0799152
1.8623685 -0.1118598 -0.325241
1.8178059 -0.10536248 -0.45154607
1.8256403 -0.13632196 -0.21769905
1.8105512 -0.10311536 -0.65791756
1.8133655 -0.11677938 -0.45636177
1.7922891 -0.12336296 -0.61313772
1.779747 -0.12416756 -0.66126555
1.7960728 -0.14898007 -0.39302057
1.9214572 -0.18135548 0.0040110862
1.9514158 -0.17615838 -0.094560429
1.7948185 -0.13501778 -0.72766358
1.810892 -0.15880764 -0.41198257
1.8565785 -0.15060568 -0.52683538
1.8494345 -0.15411496 -0.4729155
1.8674153 -0.18083015 -0.12094861
1.8611075 -0.16419771 -0.52933711
1.765335 -0.15515967 -0.88225466
1.8643674 -0.19458996 -0.14301975
1.8724343 -0.20191 -0.09673848
1.8858068 -0.20469549 -0.055669621
1.9327501 -0.21258889 0.0442908
1.7585328 -0.16528007 -0.80700982
1.8566544 -0.19765534 -0.24717586
1.7919693 -0.18932258 -0.48671672
1.883536 -0.21151401 -0.10143691
1.8698639 -0.20724931 -0.32579267
1.8715739 -0.20821714 -0.4010036
1.8749614 -0.21548922 -0.34282246
1.864823 -0.22584352 -0.13528186
1.8730135 -0.23326154 -0.063148938
1.888593 -0.23991615 -0.052509829
1.91161 -0.25711122 -0.02828728
1.8181791 -0.24822116 -0.35726249
1.8603067 -0.26022854 -0.23244254
1.8406981 -0.26020831 -0.40407589
1.8586093 -0.27154312 -0.23161343
1.9068592 -0.27694446 -0.24297744
1.7773683 -0.27275223 -0.85069531
1.9170579 -0.29217246 -0.017142063
1.8429409 -0.2872631 -0.43369773
1.9083903 -0.29524186 -0.026955651
1.9252143 -0.2971251 -0.001799362
1.9178604 -0.30617851 0.010962598
1.9179283 -0.30830497 -0.015480813
1.9361031 -0.3109121 0.01955859
1.8819163 -0.30973282 -0.12501305
1.8606795 -0.31459114 -0.39158243
1.9303696 -0.32080203 0.012097097
1.8841605 -0.31902164 -0.38860971
1.8702831 -0.33086693 -0.1703295
1.8886951 -0.3322157 -0.11987004
1.625103 -0.33262539 -0.10440557
1.928483 -0.34571448 0.022140682
1.8624327 -0.3709048 -0.41856247
1.9792038 0.21668723 -0.11079538
1.9248065 0.1509742 0.10238501
1.911286 0.15233351 0.067141302
1.9251462 0.13405533 0.099341407
1.8505386 0.1903605 -0.16992231
1.8913518 0.15898624 -0.026851509
1.8703558 0.14898774 -0.11473677
1.8162208 0.18424721 -0.31753379
1.9145632 0.10044308 0.057976294
1.8290695 0.16457656 -0.28180951
1.814603 0.17059769 -0.34460533
1.9096115 0.10139623 -0.018850438
1.7751684 0.20776701 -0.59194624
1.8312838 0.13179213 -0.19933476
1.7812154 0.21008129 -0.67506105
1.9110208 0.068277434 0.066850916
1.7830404 0.18467215 -0.58443344
1.8073096 0.17376235 -0.48889747
1.7960563 0.15034468 -0.38965166
1.7663994 0.17696896 -0.67772698
1.9135706 0.039503228 0.093477607
1.8361531 0.083311312 -0.21780275
1.9018143 0.050380297 -0.010198847
1.7752413 0.15538307 -0.68079948
1.7810143 0.13977765 -0.58520472
1.9314607 0.017789217 0.06568937
1.8091806 0.094505772 -0.43816921
1.8825547 0.021707727 -0.055327851
1.9070479 -0.012551118 0.09625604
1.7971027 0.0568964 -0.41217977
1.8896664 0.05000874 -0.42917117
1.9322678 -0.030852061 0.087906696
1.7842647 0.065114185 -0.57295984
1.8212758 -0.0012046607 -0.19766907
1.766405 -0.075127177 0.30477735
1.7751657 0.060377996 -0.78048587
1.9255981 -0.051817756 0.022086166
1.8597307 -0.013341684 -0.37587005
1.7832322 0.0076309112 -0.7425434
1.8130009 0.0016220973 -0.68984437
1.7440298 0.00050280837 -0.80911458
1.7998039 -0.029164763 -0.60261935
1.7506789 -0.020572405 -0.78917456
1.7705129 -0.040168289 -0.79017758
1.8218696 -0.1078734 -0.45941207
1.8084922 -0.13042523 -0.42222926
1.7628289 -0.111667 -0.77160031
1.8074261 -0.12138003 -0.66134864
1.9171381 -0.17453629 0.015939469
1.8192775 -0.15945579 -0.42183468
1.7958341 -0.13307083 -0.90429765
1.7765259 -0.14775749 -0.74346721
1.6671076 -0.19575627 -0.036001965
1.7760999 -0.1540861 -0.91085696
1.8667881 -0.19675452 -0.14729208
1.8384926 -0.20480874 -0.00082097785
1.8856428 -0.20446029 -0.038579538
1.9119098 -0.20938504 -0.0007792628
1.9078554 -0.21871729 0.063515745
1.9284688 -0.21676251 0.043059524
1.8150039 -0.18346187 -0.62490016
1.8159398 -0.18928829 -0.5323875
1.8435351 -0.2084149 -0.24510567
1.8917743 -0.23651831 -0.060491957
1.8851978 -0.25165242 -0.10990015
1.9080267 -0.25517151 -0.022045696
1.8217275 -0.2485224 -0.36349145
1.854622 -0.25566366 -0.21846208
1.8899601 -0.26932353 -0.08540459
1.8856014 -0.27690366 -0.18699147
1.9181938 -0.28966689 -0.01297968
1.8126497 -0.2899726 -0.34293908
1.8577358 -0.29749531 -0.62169397
1.9151127 -0.30770963 0.010378595
1.8800253 -0.31112206 -0.11933941
1.8366128 -0.31542146 -0.30628133
1.8727881 -0.32390159 -0.17523566
1.8772794 -0.32675329 -0.16966008
1.8887821 -0.32872579 -0.11416972
1.8388952 -0.33631745 -0.31716153
2.1164203 -0.35102996 -0.55592012
1.9309156 -0.33873326 0.02304955
1.8390696 -0.36857396 -0.35821152
1.8673398 -0.39801317 -0.42804456
1.9447381 0.1395268 0.027003014
1.9230192 0.079334512 -0.0088958675
1.9289347 -0.0090495646 0.003223015
1.8911721 -0.17695405 0.021221459
1.9334882 -0.21216102 -0.034279913
1.9015257 -0.3156603 -0.24171194
1.8736395 -0.32582486 -0.083725713
1.8458492 -0.33581823 -0.34896675
1.9492792 -0.42378023 0.18740311
1.9092134 -0.49000928 0.27898061
1.8528979 -0.48366445 0.39944366
1.913267 -0.23747402 -0.084850281
1.9220622 -0.30988955 -0.02351198
1.8493224 -0.46515375 0.37720999
1.986382 0.2310646 0.13717116
1.7242441 -0.3337346 -0.4571228
1.8677409 -0.37894082 -0.88991725
1.790889 -0.11230884 -0.86959535
1.6849952 -0.15418398 -0.3030706
1.7972018 -0.14556472 -0.37616557
1.7744732 -0.14199214 -0.80982023
1.9381934 -0.34807464 0.039055973
1.7915751 -0.27407715 -0.90922731
1.9416541 0.027643409 0.037765402
1.4965218 -0.28995362 0.46306786
1.7512151 -0.021370262 -0.83226782
1.8981198 0.11595201 0.10544433
1.8303825 -0.36627063 0.19932131
1.9010022 -0.018570628 0.075241365
1.9034638 -0.43025035 0.28043497
