1.83605,0.119547,-0.256057
1.7668,0.152133,-0.668923
1.79585,0.122087,-0.498942
1.9153,0.162924,0.129877
1.92876,0.151021,0.099137
1.88241,0.177391,-0.0309169
1.92205,0.13568,0.102775
1.8523,0.194699,-0.180858
1.85312,0.183632,-0.133275
1.88014,0.164077,-0.0497223
1.88887,0.1587,-0.0387191
1.89108,0.142685,-0.0465797
1.86105,0.222455,-0.43223
1.83121,0.18185,-0.241006
1.87759,0.138726,-0.0458475
1.86682,0.148405,-0.119213
1.83933,0.188923,-0.334772
1.91882,0.107056,0.0490281
1.82603,0.157602,-0.253537
1.90521,0.108664,-0.0145299
1.84097,0.146266,-0.211456
1.91008,0.0883962,0.0493733
1.81991,0.17338,-0.403926
1.83884,0.176928,-0.417147
1.93032,0.101253,-0.0436796
1.80487,0.189468,-0.542211
1.81212,0.172246,-0.438798
1.80183,0.170732,-0.454967
1.8298,0.152188,-0.377925
1.79729,0.18579,-0.568774
1.92072,0.06405,0.0556728
1.91235,0.0657697,0.0293549
1.92184,0.0580891,0.0225353
1.93157,0.0503231,0.056073
1.78074,0.172841,-0.660088
1.92263,0.0438322,0.0487217
1.90522,0.0466444,0.0148807
1.90665,0.0440628,0.0309637
1.90196,0.0479825,-0.0180234
1.79029,0.150387,-0.626847
1.85982,0.0905389,-0.290706
1.77568,0.160436,-0.713693
1.89427,0.0299446,-0.0018339
1.81069,0.0991215,-0.452786
1.92186,0.0100434,0.0821165
1.91937,-0.00785111,0.101618
1.88662,0.0163349,-0.0577747
1.91348,-0.00703256,0.0804642
1.88363,0.000495805,-0.0546493
1.83413,0.024575,-0.231428
1.84747,0.0169736,-0.191113
1.9132,-0.0283459,0.102998
1.92875,-0.0278444,0.0957838
1.79977,0.0746399,-0.639327
1.81073,0.033909,-0.386886
1.83666,0.00811891,-0.211199
1.93611,-0.0303281,0.0558278
1.8679,-0.0234061,-0.0291882
1.92546,-0.0388644,0.0341723
1.82545,0.025854,-0.436822
1.7725,0.0624341,-0.752791
1.77563,0.0604051,-0.705756
1.92395,-0.048654,0.0283467
1.77242,0.0344983,-0.760771
1.80488,0.0180571,-0.631714
1.8311,-0.0265057,-0.265168
1.79281,0.0275582,-0.743126
1.83751,-0.0156228,-0.385633
1.82325,0.0281647,-0.78603
1.78036,0.00641977,-0.704549
1.79636,-0.00176825,-0.63818
1.8498,-0.030684,-0.384007
1.7986,0.00665798,-0.846214
1.73393,-0.0282131,-0.735571
1.84477,-0.0677761,-0.439701
1.85119,-0.0767429,-0.340519
1.82252,-0.101361,-0.273432
1.86237,-0.11186,-0.325241
1.81781,-0.105362,-0.451546
1.82564,-0.136322,-0.217699
1.81055,-0.103115,-0.657918
1.81337,-0.116779,-0.456362
1.79229,-0.123363,-0.613138
1.77975,-0.124168,-0.661266
1.79607,-0.14898,-0.393021
1.92146,-0.181355,0.00401109
1.79482,-0.135018,-0.727664
1.81089,-0.158808,-0.411983
1.84943,-0.154115,-0.472916
1.86742,-0.18083,-0.120949
1.76533,-0.15516,-0.882255
1.86437,-0.19459,-0.14302
1.87243,-0.20191,-0.0967385
1.88581,-0.204695,-0.0556696
1.75853,-0.16528,-0.80701
1.85665,-0.197655,-0.247176
1.79197,-0.189323,-0.486717
1.88354,-0.211514,-0.101437
1.86986,-0.207249,-0.325793
1.86482,-0.225844,-0.135282
1.87301,-0.233262,-0.0631489
1.88859,-0.239916,-0.0525098
1.81818,-0.248221,-0.357262
1.86031,-0.260229,-0.232443
1.8407,-0.260208,-0.404076
1.85861,-0.271543,-0.231613
1.77737,-0.272752,-0.850695
1.84294,-0.287263,-0.433698
1.88192,-0.309733,-0.125013
1.87028,-0.330867,-0.170329
1.92481,0.150974,0.102385
1.91129,0.152334,0.0671413
1.92515,0.134055,0.0993414
1.85054,0.190361,-0.169922
1.89135,0.158986,-0.0268515
1.87036,0.148988,-0.114737
1.91456,0.100443,0.0579763
1.82907,0.164577,-0.28181
1.8146,0.170598,-0.344605
1.90961,0.101396,-0.0188504
1.83128,0.131792,-0.199335
1.78122,0.210081,-0.675061
1.91102,0.0682774,0.0668509
1.78304,0.184672,-0.584433
1.80731,0.173762,-0.488897
1.7664,0.176969,-0.677727
1.91357,0.0395032,0.0934776
1.83615,0.0833113,-0.217803
1.90181,0.0503803,-0.0101988
1.77524,0.155383,-0.680799
1.78101,0.139778,-0.585205
1.93146,0.0177892,0.0656894
1.80918,0.0945058,-0.438169
1.88255,0.0217077,-0.0553279
1.90705,-0.0125511,0.096256
1.7971,0.0568964,-0.41218
1.93227,-0.0308521,0.0879067
1.78426,0.0651142,-0.57296
1.82128,-0.00120466,-0.197669
1.77517,0.060378,-0.780486
1.9256,-0.0518178,0.0220862
1.85973,-0.0133417,-0.37587
1.78323,0.00763091,-0.742543
1.813,0.0016221,-0.689844
1.74403,0.000502808,-0.809115
1.7998,-0.0291648,-0.602619
1.75068,-0.0205724,-0.789175
1.77051,-0.0401683,-0.790178
1.82187,-0.107873,-0.459412
1.80849,-0.130425,-0.422229
1.76283,-0.111667,-0.7716
1.80743,-0.12138,-0.661349
1.91714,-0.174536,0.0159395
1.81928,-0.159456,-0.421835
1.79583,-0.133071,-0.904298
1.77653,-0.147757,-0.743467
1.7761,-0.154086,-0.910857
1.86679,-0.196755,-0.147292
1.83849,-0.204809,-0.000820978
1.88564,-0.20446,-0.0385795
1.91191,-0.209385,-0.000779263
1.90786,-0.218717,0.0635157
1.815,-0.183462,-0.6249
1.81594,-0.189288,-0.532387
1.84354,-0.208415,-0.245106
1.89177,-0.236518,-0.060492
1.8852,-0.251652,-0.1099
1.90803,-0.255172,-0.0220457
1.82173,-0.248522,-0.363491
1.85462,-0.255664,-0.218462
1.88996,-0.269324,-0.0854046
1.81265,-0.289973,-0.342939
1.88003,-0.311122,-0.119339
1.83661,-0.315421,-0.306281
1.87279,-0.323902,-0.175236
1.87728,-0.326753,-0.16966
1.88878,-0.328726,-0.11417
1.8389,-0.336317,-0.317162
1.83907,-0.368574,-0.358212
1.94474,0.139527,0.027003
1.92302,0.0793345,-0.00889587
1.92893,-0.00904956,0.00322301
1.89117,-0.176954,0.0212215
1.87364,-0.325825,-0.0837257
1.84585,-0.335818,-0.348967
1.93124,-0.0635456,0.393038
1.88309,-0.409431,0.462813
1.87523,-0.412362,0.443597
1.88403,-0.413577,0.452606
1.87885,-0.443751,0.445184
1.90921,-0.490009,0.278981
1.85891,-0.488931,0.392123
1.87826,-0.418466,0.426933
1.85661,-0.488752,0.403151
1.8529,-0.483664,0.399444
1.9521,0.02985,0.436316
1.92104,-0.283457,0.385606
1.90569,-0.347098,0.40803
1.84932,-0.465154,0.37721
2.01173,0.19033,0.568458
2.00839,0.151135,0.591166
1.97542,0.111792,0.503225
1.97958,0.101952,0.501104
1.97858,0.0905012,0.512718
1.95333,0.088882,0.451407
1.95748,0.0807956,0.450545
1.95689,0.0627123,0.464107
1.96137,0.0537203,0.477702
1.95495,0.00155317,0.46666
1.94815,-0.0264514,0.470504
1.9415,-0.0330429,0.455791
1.9371,-0.0412812,0.449801
1.94941,-0.048866,0.47207
1.98028,-0.0818571,0.604955
1.96927,-0.0894502,0.606205
1.94599,-0.0950404,0.470857
1.93466,-0.103403,0.460752
1.96235,-0.127551,0.627337
1.95693,-0.149117,0.613752
1.93746,-0.14073,0.48943
1.93405,-0.150701,0.46744
1.94113,-0.152424,0.496268
1.95595,-0.163052,0.614231
1.92688,-0.161263,0.475297
1.94415,-0.164242,0.501992
1.95886,-0.174946,0.619314
1.95571,-0.200516,0.61697
1.91354,-0.192845,0.450281
1.95477,-0.211031,0.640196
1.92424,-0.201733,0.466882
1.91768,-0.204433,0.456829
1.94848,-0.218492,0.605483
1.95109,-0.229309,0.637346
1.92832,-0.219954,0.434717
1.94879,-0.238714,0.622958
1.94718,-0.252201,0.63584
1.94307,-0.254052,0.609902
1.94282,-0.257316,0.600485
1.92223,-0.266219,0.574752
1.91873,-0.265115,0.461675
1.91947,-0.270511,0.519426
1.91846,-0.278126,0.492264
1.91378,-0.299427,0.554426
1.91473,-0.303997,0.465201
1.91697,-0.304269,0.511225
1.92525,-0.304327,0.502611
1.91484,-0.412053,0.566987
1.90094,-0.413365,0.568482
1.90327,-0.426177,0.560749
1.90038,-0.435733,0.566713
1.91599,-0.445317,0.623933
1.92131,-0.493437,0.628562
1.99954,0.176157,0.580419
1.98638,0.231065,0.137171
1.96464,0.105441,0.506756
1.98444,0.104573,0.514988
1.95654,0.0869343,0.457852
1.96416,-0.00235325,0.476838
1.94877,-0.0953374,0.475268
1.9343,-0.100007,0.460246
1.93579,-0.142992,0.497175
1.95175,-0.162621,0.618458
1.9309,-0.177938,0.469265
1.92073,-0.189474,0.442515
1.91624,-0.267199,0.470785
1.92234,-0.271052,0.578292
1.92227,-0.275661,0.501672
1.91172,-0.290897,0.476456
1.92508,-0.29347,0.568278
1.92782,-0.298387,0.503195
1.89834,-0.424554,0.576848
1.89505,-0.453754,0.56518
1.89572,-0.484553,0.562213
1.91044,-0.476619,0.636917
1.90997,-0.501629,0.583875
1.79089,-0.112309,-0.869595
1.7972,-0.145565,-0.376166
1.77447,-0.141992,-0.80982
2.03038,0.0984318,0.694587
2.01074,0.0838803,0.623115
2.03475,0.0378644,0.800297
1.99875,0.0686923,0.621651
2.00106,0.0580857,0.61188
2.01225,0.0450829,0.697004
2.03642,0.03014,0.790696
2.0178,0.0366684,0.677786
2.01773,0.0233789,0.746152
2.01058,0.0216772,0.717079
1.9975,0.0341497,0.61616
2.01259,0.0131447,0.746598
2.00331,0.018855,0.663456
2.00593,0.0175411,0.672552
2.01747,0.00758983,0.711001
2.00763,0.00528039,0.69722
2.01194,0.0184408,0.591454
1.9989,0.00173406,0.654833
1.99948,-0.00607373,0.686811
1.99896,-0.00171227,0.60785
2.00058,-0.0221052,0.713802
2.01004,-0.0274938,0.738938
2.0037,-0.0125327,0.603749
1.99281,-0.0265912,0.665644
1.98651,-0.0338961,0.663815
1.99225,-0.0346422,0.665568
1.9905,-0.0414287,0.651081
1.99415,-0.0462537,0.68572
1.97611,-0.0483562,0.644325
2.02362,-0.0779291,0.78604
1.99031,-0.0784407,0.697046
2.01998,-0.0891091,0.780902
1.99029,-0.0849093,0.679963
1.99685,-0.107496,0.736924
1.98787,-0.109285,0.681783
1.99237,-0.109307,0.698491
1.99668,-0.117206,0.732138
2.01105,-0.140216,0.793927
1.93301,-0.411833,0.680645
2.03496,0.165561,0.741097
2.03812,0.112996,0.729631
2.01642,0.0859554,0.691353
1.9965,0.079563,0.605069
2.02878,0.0449035,0.761268
2.01634,0.0185438,0.727696
2.00028,-0.00504811,0.671711
2.00948,-0.0132386,0.720389
1.99367,-0.00748059,0.632828
2.00615,-0.0300441,0.740801
1.99398,-0.0547878,0.727175
2.0007,-0.0620262,0.655947
1.99493,-0.0720564,0.692562
2.01486,-0.0896359,0.78222
1.9783,-0.0798099,0.621524
1.99014,-0.0895126,0.63197
1.9955,-0.102433,0.738985
1.96907,-0.0928008,0.597588
1.9804,-0.112494,0.688285
1.99218,-0.110598,0.696036
1.93775,-0.0951988,0.458273
1.98157,-0.1125,0.625153
1.99298,-0.121771,0.730769
1.96538,-0.135965,0.623839
1.93747,-0.149203,0.49711
1.95175,-0.160418,0.501289
1.95343,-0.165132,0.598352
1.9754,-0.178983,0.657414
1.9279,-0.193908,0.430255
1.92296,-0.267675,0.577031
1.91868,-0.272582,0.463797
1.91175,-0.291641,0.476097
1.93174,-0.40169,0.667818
1.90114,-0.424235,0.572237
1.93573,-0.426961,0.681707
1.89724,-0.455302,0.55872
1.91199,-0.47397,0.617287
1.91811,-0.48596,0.647055
1.93929,-0.487601,0.733638
1.96004,-0.483516,0.797693
1.9075,-0.500717,0.589014
1.94646,-0.499461,0.744324
1.96464,-0.501516,0.802653
1.99842,-0.015011,0.746802
1.93959,-0.17404,0.455469
2.01523,-0.170721,0.792146
2.02475,-0.244026,0.769962
1.96799,-0.501857,0.748196
2.04541,0.0728036,0.792137
2.03682,0.162086,0.734463
1.90261,-0.494784,0.600622
2.00241,0.0322026,0.532066
1.87885,-0.464598,0.499848
1.95182,-0.49989,0.782313
1.94165,0.0276434,0.0377654
2.01002,0.0794912,0.674245
2.01182,0.0560407,0.647823
1.96448,-0.0721229,0.557656
1.95869,-0.0847564,0.514076
1.98532,-0.375663,0.809372
1.97613,-0.428237,0.816112
1.96611,-0.476465,0.817817
1.96788,-0.483339,0.813279
1.96429,-0.49365,0.812906
1.9841,-0.124468,0.639941
2.0262,0.0834859,0.678858
2.03685,0.0411216,0.796631
1.95821,0.0208728,0.46536
1.95182,0.00948201,0.47643
1.95244,-0.0117773,0.470363
1.94717,-0.0330383,0.468632
1.75122,-0.0213703,-0.832268
1.94637,-0.255086,0.64213
1.87962,-0.463263,0.498036
1.96617,-0.478274,0.818737
1.96385,-0.490466,0.799224
1.96505,-0.500185,0.824804
1.95485,-0.252654,0.619699
2.04492,0.18444,0.730956
2.04606,0.185817,0.717401
2.05226,0.179658,0.724563
2.0119,0.134175,0.628059
1.9608,-0.072718,0.558926
1.89826,-0.277446,0.398453
1.89326,-0.393545,0.425306
1.89812,0.115952,0.105444
1.83038,-0.366271,0.199321
1.901,-0.0185706,0.0752414
1.90346,-0.43025,0.280435
1.94071,-0.101002,0.452218
1.94705,-0.148886,0.310712
-0.167106,0.0741684,-0.0558867
-0.242894,0.0201684,-0.0402132
-0.211642,0.102709,-0.0509454
-0.127319,0.0315982,-0.0783245
-0.146608,0.26921,-0.0663756
-0.185427,0.0338928,-0.0529926
0.620931,-0.102535,-0.281169
-0.0896284,0.207493,-0.114135
-0.186894,0.135557,-0.0370071
0.59876,0.166163,-0.294083
-0.262706,0.0210093,-0.0305736
-0.191248,0.00782136,-0.0633659
-0.200522,0.265414,-0.0430959
-0.229114,0.110132,-0.0511296
-0.19373,0.0504165,-0.0581708
-0.118812,0.21673,-0.0888307
-0.0802366,0.0419881,-0.105516
0.436635,0.153039,-0.287198
-0.241192,0.068777,-0.0480314
-0.086248,0.0180286,-0.129332
-0.0882405,0.198549,-0.125096
0.637265,0.122005,-0.310848
-0.229773,0.259248,-0.02275
-0.152834,0.0906539,-0.0704486
-0.227601,0.0120234,-0.0410998
0.473932,0.105372,-0.256015
0.596433,0.121831,-0.290442
0.0670545,0.0875616,-0.190183
-0.146808,0.183583,-0.0651926
0.637195,0.168447,-0.324217
0.626134,0.110515,-0.293314
-0.0442201,0.0123652,-0.132519
-0.0327362,0.102577,-0.125419
-0.0326192,0.17159,-0.136555
-0.0981713,0.216487,-0.096999
-0.185799,0.0163612,-0.0442127
-0.286879,0.274731,-0.0441601
0.674531,0.122175,-0.333162
-0.0257615,0.266966,-0.136041
-0.152708,0.112818,-0.0770461
0.551842,0.168169,-0.275332
-0.171626,0.0359253,-0.0732791
-0.190081,0.0808946,-0.0546738
0.44749,-0.0741184,-0.245243
-0.256648,0.00515446,-0.0323283
-0.112339,0.269692,-0.065483
0.685432,0.0981151,-0.337636
-0.115042,0.282012,-0.0971203
-0.145996,0.141949,-0.0649112
-0.0378123,0.0800512,-0.145911
0.112575,0.166699,-0.194747
-0.249446,0.0652501,-0.018748
0.732599,-0.357302,-0.336973
0.67492,0.172018,-0.34839
0.164542,0.195299,-0.210129
0.0173783,0.272735,-0.161607
0.0122528,0.171973,-0.164271
0.440286,0.22475,-0.266069
-0.218268,-0.229284,-0.0588559
-0.108186,0.188486,-0.0889455
0.776172,-0.175107,-0.334528
0.47087,-0.0738067,-0.252444
0.174652,0.117859,-0.209597
0.821357,-0.35824,-0.375805
0.0578034,0.282509,-0.182298
0.175521,0.201685,-0.194617
0.108978,0.258736,-0.177168
0.0409475,0.112707,-0.162204
0.170433,0.215,-0.208341
-0.270147,0.13315,-0.0358753
0.214423,-0.0632052,-0.235625
0.0405651,0.189128,-0.152739
0.871384,0.0512403,-0.359539
-0.0174151,0.254211,-0.133286
0.434107,0.218533,-0.254492
-0.262428,0.234248,-0.00133637
0.0918695,0.200151,-0.188129
0.538105,0.168995,-0.2764
0.512275,0.228735,-0.284333
-0.0776703,0.272072,-0.105596
0.40353,0.131499,-0.223616
-0.117741,0.133216,-0.0646926
0.693082,0.11374,-0.350427
0.116254,0.250497,-0.190929
0.517628,0.239084,-0.260767
0.141397,0.256372,-0.188732
-0.236088,0.134368,-0.0309953
-0.223047,0.180199,-0.0297037
0.0990107,0.280195,-0.175357
0.698043,-0.196223,-0.305148
-0.233602,-0.242752,-0.0746523
0.723267,-0.357347,-0.346975
0.186906,0.0175393,-0.205867
0.0924392,0.20197,-0.172973
0.171065,0.183787,-0.20602
-0.163254,0.215958,-0.0540917
0.756037,-0.357395,-0.347711
0.77192,0.0239038,-0.332106
-0.117037,-0.370514,-0.124072
0.690195,-0.206133,-0.294673
0.779411,-0.188392,-0.337941
-0.0956203,-0.360803,-0.103303
-0.121096,-0.320142,-0.114761
0.725989,-0.1977,-0.326465
0.821352,-0.132209,-0.366808
-0.222962,-0.228,-0.089
0.172607,0.172865,-0.201002
-0.268037,0.211083,-0.0249938
0.818679,-0.120857,-0.362529
0.60902,0.112233,-0.294465
0.185644,-0.0848771,-0.212512
-0.16458,-0.0129714,-0.0698177
0.38243,0.053982,-0.29716
0.835327,-0.297734,-0.384905
0.720444,-0.189327,-0.312436
0.683604,0.234088,-0.31676
-0.253298,-0.0440023,-0.0281941
-0.227228,-0.00578944,-0.0568738
0.343576,0.0555904,-0.236071
-0.271485,-0.0246035,-0.029402
0.71595,-0.210821,-0.320647
-0.105119,-0.202264,-0.125264
0.812353,-0.12448,-0.352517
-0.20781,0.217406,-0.0566325
-0.202318,-0.027666,-0.0635704
0.540015,0.146182,-0.257479
0.843892,-0.0732297,-0.395842
-0.17993,0.121273,-0.0542812
0.0185167,0.209354,-0.168913
-0.0172958,0.191439,-0.130879
-0.0966951,0.264047,-0.0800798
-0.0765554,0.136102,-0.111367
-0.263728,-0.39093,-0.0536735
0.737899,-0.342985,-0.330492
-0.267426,-0.0323936,-0.0228876
0.0648159,-0.379931,-0.186117
0.737169,-0.166077,-0.319017
0.00975007,0.206906,-0.147505
0.422016,0.279591,-0.26067
-0.227085,-0.0402148,-0.0763422
-0.274802,-0.0945701,-0.0290221
0.68833,0.259692,-0.322833
-0.0865118,-0.340619,-0.135916
0.794252,-0.261282,-0.35902
0.631358,-0.0903047,-0.322413
-0.264892,0.0353399,-0.0252299
0.722222,0.196986,-0.402863
-0.198294,-0.0343505,-0.0223888
-0.174655,0.20962,-0.0406549
0.770228,-0.189729,-0.340172
0.223171,0.114835,-0.215365
0.803896,-0.171581,-0.353723
0.787967,-0.20453,-0.32844
-0.145888,-0.360234,-0.113791
0.789307,-0.17508,-0.357331
-0.257668,-0.0104298,-0.0424388
0.751102,-0.185107,-0.333559
0.424328,-0.258458,-0.223598
-0.0454255,-0.183097,-0.152671
0.719326,0.147856,-0.359212
-0.279631,0.17884,-0.0212843
0.791755,-0.330034,-0.353276
0.517323,0.120661,-0.299016
0.552923,0.141244,-0.260817
-0.14297,-0.279585,-0.112209
0.824828,0.258753,-0.379523
0.338335,-0.319005,-0.269216
0.487189,0.171166,-0.253512
-0.198422,-0.149063,-0.10123
0.231195,0.0129377,-0.236878
-0.252073,-0.380651,-0.0309861
0.814099,-0.204105,-0.354267
0.836293,0.264497,-0.392729
0.448666,0.0502849,-0.225705
-0.165894,0.128741,-0.0707592
-0.285347,0.196943,-0.0407914
0.509071,0.12039,-0.291523
0.754612,0.164455,-0.402785
0.849981,-0.109858,-0.394092
0.839977,-0.285778,-0.381654
-0.0181545,-0.195783,-0.134307
0.370974,-0.306246,-0.221203
0.802862,-0.199368,-0.349877
0.741657,-0.329247,-0.341978
0.856053,0.020614,-0.359575
0.336261,-0.317918,-0.228028
0.41838,0.0569738,-0.260451
0.0582117,-0.24893,-0.187194
0.751647,-0.274856,-0.321634
0.487142,0.18014,-0.303093
0.72517,-0.22904,-0.313392
0.712235,-0.223904,-0.313537
-0.188205,-0.204373,-0.0675479
0.25557,-0.0816544,-0.243987
-0.122353,0.124571,-0.107668
-0.229818,-0.176004,-0.0783976
0.030325,-0.0420393,-0.178412
-0.119754,-0.233083,-0.127653
0.101849,-0.129224,-0.199869
0.640922,0.0204115,-0.313058
0.0602143,-0.189163,-0.186686
0.815152,0.195561,-0.390472
0.78717,-0.316094,-0.362143
0.216492,-0.000660319,-0.236962
0.836654,-0.112258,-0.355232
0.765812,-0.258128,-0.349744
0.773399,-0.279882,-0.358881
0.488624,-0.0503522,-0.254612
-0.237679,-0.186869,-0.0733334
0.361325,-0.0201497,-0.235632
-0.239119,0.0387237,-0.0331883
0.330101,0.0585102,-0.235694
0.480941,0.0312136,-0.329938
0.413518,-0.336764,-0.256918
0.540669,0.272348,-0.315712
0.769282,0.0501658,-0.325367
-0.198505,-0.128329,-0.0984154
0.864819,-0.0283958,-0.379479
0.27092,-0.0943563,-0.227643
0.788944,-0.229266,-0.367165
0.523646,0.0174401,-0.24612
0.833333,-0.0300781,-0.348606
0.81197,-0.230265,-0.364082
0.804164,-0.112071,-0.343983
-0.227795,-0.029806,-0.0224665
0.754858,-0.283947,-0.322124
0.216052,-0.00959709,-0.237574
-0.23802,0.0423727,-0.0628462
-0.00335193,0.0212228,-0.158996
0.269356,0.00881225,-0.22081
0.824514,-0.107482,-0.354138
-0.242693,0.207207,-0.0214183
0.375264,0.0934196,-0.216963
0.252941,-0.0562156,-0.20048
0.475384,0.266161,-0.274925
-0.214801,-0.261709,-0.0157187
0.185822,-0.0100956,-0.209124
0.705956,-0.35676,-0.328509
0.77845,-0.297006,-0.360062
0.736766,-0.1068,-0.311532
0.339661,-0.0387958,-0.239679
0.504797,0.171256,-0.260295
0.378018,-0.246894,-0.257888
0.569619,-0.00161684,-0.278397
0.403057,-0.335959,-0.260343
0.716698,0.250393,-0.33113
0.398604,-0.21035,-0.296758
0.740773,0.220059,-0.334533
-0.0181911,-0.0445127,-0.161003
0.841602,-0.230472,-0.347398
0.62162,0.0106108,-0.290511
0.352614,0.181007,-0.242008
0.436011,-0.313843,-0.218922
-0.231294,0.0348883,-0.0505533
0.783541,-0.349085,-0.379575
0.255418,-0.0496179,-0.224189
-0.141049,-0.238872,-0.110249
-0.120934,0.126563,-0.122544
0.420624,-0.044196,-0.25889
0.221448,-0.0320191,-0.218401
-0.163666,-0.27848,-0.0946941
0.366286,-0.352158,-0.264816
-0.0217675,-0.210278,-0.12075
-0.259299,-0.34596,-0.0346999
0.121274,0.111854,-0.207848
0.401484,-0.305679,-0.245272
0.0805528,-0.0753221,-0.181968
0.0783234,-0.204997,-0.184026
0.327515,0.00273087,-0.2044
0.349951,-0.319793,-0.278278
0.620648,0.231282,-0.363194
0.378867,0.221598,-0.242646
0.252461,0.150403,-0.215865
0.474053,-0.27741,-0.265934
0.254634,-0.302818,-0.251793
-0.208984,0.21223,-0.018538
0.317071,0.0745558,-0.198622
0.303741,-0.0295747,-0.234883
0.440175,-0.0380917,-0.243575
-0.0830721,-0.0667637,-0.0795466
0.166925,-0.142271,-0.163831
-0.262699,-0.250314,-0.0793341
0.318442,-0.282216,-0.243371
0.313921,0.274778,-0.206499
0.109673,0.274188,-0.156554
-0.0101244,0.279838,-0.144371
0.0217268,0.273801,-0.143295
0.0560997,0.281289,-0.190065
-0.0096683,0.259757,-0.0926048
-0.205945,0.268441,-0.0523476
-0.229493,0.251023,-0.00663906
0.263701,0.219576,-0.184462
-0.12708,0.226516,-0.113321
0.224991,0.202813,-0.239989
-0.16314,0.206534,-0.0297702
0.176832,0.189383,-0.180916
-0.0879641,0.192915,-0.125106
-0.0239358,0.188585,-0.147011
0.0307914,0.18537,-0.167518
0.105055,0.17572,-0.160548
-0.246875,0.191891,-0.0591639
-0.192367,0.184918,-0.0642985
-0.154463,0.183846,-0.07758
0.384544,0.14509,-0.22964
-0.275466,0.178974,-0.0266256
0.284874,0.148803,-0.254675
0.341223,0.145318,-0.258745
-0.189905,0.129517,-0.0357812
-0.0840467,0.129886,-0.109953
0.236377,0.104602,-0.166845
0.102657,0.10786,-0.161818
0.109011,0.112426,-0.196076
0.171977,0.109915,-0.216824
0.361801,0.097046,-0.278869
-0.20465,0.118706,-0.0876514
-0.0955861,0.11153,-0.115091
-0.132938,0.0853669,-0.0505125
-0.0320279,0.0873549,-0.135107
0.0808492,0.0797648,-0.158277
0.155187,0.0793369,-0.210126
0.35546,0.0520015,-0.216592
0.412556,0.047286,-0.211037
-0.240163,0.0651015,-0.0422257
-0.212733,0.0401533,-0.0304609
-0.0962299,0.0443847,-0.134117
0.41853,0.0147886,-0.243816
-0.264612,0.0331493,-0.0419252
0.34338,0.00971641,-0.22576
-0.00860761,0.0194616,-0.152454
0.325944,-0.000158779,-0.221456
-0.191499,0.0056124,-0.0134565
-0.0407098,0.00770611,-0.12571
0.36142,-0.0221445,-0.218217
0.408952,-0.0245342,-0.235573
-0.219837,-0.0125648,-0.00449044
0.222605,-0.0212874,-0.223512
0.204359,-0.0357489,-0.156121
0.340747,-0.0370016,-0.255563
-0.216407,-0.0399824,-0.0400939
-0.0143449,-0.0411827,-0.159602
0.0601009,-0.0376137,-0.180068
-0.237467,-0.0460644,-0.0277289
0.216477,-0.0591203,-0.237068
0.336017,-0.068722,-0.235686
0.465841,-0.0685844,-0.316896
-0.217413,-0.0684164,-0.057924
-0.0845383,-0.0694318,-0.128864
0.0939873,-0.0863262,-0.190495
0.0311996,-0.0898828,-0.180171
-0.242158,-0.100348,-0.00126113
0.0443897,-0.122328,-0.167288
0.258976,-0.141247,-0.234425
-0.0512569,-0.139634,-0.136102
0.0466451,-0.144759,-0.128212
0.718313,-0.171279,-0.305416
0.778848,-0.17306,-0.324832
-0.214452,-0.177062,-0.0689876
0.725053,-0.194017,-0.364903
-0.180445,-0.190342,-0.0651848
0.0649826,-0.189437,-0.178985
0.798912,-0.207682,-0.352895
-0.266001,-0.200204,-0.0581757
-0.0221433,-0.21094,-0.140789
0.766566,-0.223307,-0.343496
-0.220634,-0.217903,-0.0611067
0.363405,-0.225566,-0.237387
0.418839,-0.235187,-0.226232
-0.048968,-0.23851,-0.126132
0.336154,-0.243078,-0.265184
-0.227129,-0.245019,-0.087568
0.374673,-0.250326,-0.262618
0.0480398,-0.26102,-0.172145
0.42687,-0.260674,-0.214968
-0.232098,-0.266806,-0.0538747
-0.109004,-0.266861,-0.11998
0.726421,-0.27302,-0.324794
0.793088,-0.282967,-0.358481
-0.198711,-0.28538,-0.100527
-0.178026,-0.281681,-0.106996
-0.0877819,-0.286092,-0.0877291
0.38091,-0.291057,-0.224323
0.77474,-0.299627,-0.358399
0.40166,-0.306422,-0.241169
-0.135543,-0.316561,-0.103217
0.340276,-0.315873,-0.280173
0.784172,-0.328159,-0.348242
-0.108179,-0.335277,-0.11137
0.746802,-0.334048,-0.311341
0.350685,-0.343947,-0.271398
0.399862,-0.338827,-0.252994
0.680831,-0.35366,-0.319759
0.70357,-0.352729,-0.317479
0.759958,-0.351994,-0.323461
0.404527,-0.365463,-0.252563
-0.265916,-0.39199,-0.0555022
-0.265576,-0.421699,-0.051188
0.707354,-0.355841,-0.347374
0.0164458,0.113611,-0.126351
0.274628,0.000701099,-0.263162
-0.00669032,0.273066,-0.144783
0.0270075,0.174879,-0.148663
-0.0774772,-0.0784445,-0.0999231
0.216934,0.068487,-0.238412
0.227205,0.0627663,-0.245597
-0.108809,-0.0742463,-0.119941
0.261409,-0.297499,-0.237859
0.570854,0.213837,-0.261048
0.80132,-0.126563,-0.34495
0.868828,-0.167128,-0.386626
1.00565,0.209187,-0.407713
1.02021,0.186465,-0.416867
0.924517,0.0892413,-0.380216
0.921989,0.0589178,-0.410147
0.921493,0.0213979,-0.396556
0.923104,-0.0311671,-0.421605
0.917298,-0.0554698,-0.410545
0.92083,-0.0818388,-0.428072
0.967313,-0.083586,-0.474535
0.935,-0.0902497,-0.435749
0.904527,-0.144015,-0.416521
0.922938,-0.148279,-0.432087
0.889985,-0.159368,-0.391396
0.903758,-0.165557,-0.409652
0.922236,-0.163574,-0.438264
0.940228,-0.16346,-0.452193
0.955977,-0.163227,-0.456544
0.899542,-0.18285,-0.407409
0.963766,-0.184583,-0.45863
0.968447,-0.210073,-0.481387
0.906638,-0.274995,-0.417999
0.921492,-0.285386,-0.446092
0.895684,-0.289081,-0.421106
0.906864,-0.288652,-0.43262
0.916283,-0.304775,-0.448401
0.927584,0.246861,-0.389406
1.01495,0.194586,-0.42308
0.252332,0.158095,-0.247508
0.993528,0.136727,-0.418937
0.921078,0.107658,-0.390581
0.921536,0.0561435,-0.382032
0.919672,0.0251366,-0.406853
0.822217,0.0153233,-0.354982
0.43191,0.0189701,-0.270945
0.313364,0.00992753,-0.262843
0.388295,0.000162713,-0.223809
0.885926,-0.0118771,-0.424423
0.22412,-0.0202129,-0.21847
0.406564,-0.0260466,-0.243373
0.830128,-0.0319017,-0.375596
0.358564,-0.041909,-0.217606
0.915943,-0.0535248,-0.430058
0.366679,-0.067362,-0.272028
0.441347,-0.0752711,-0.233118
0.96964,-0.0874034,-0.472833
0.935342,-0.162292,-0.467448
0.707042,-0.168664,-0.339865
0.738801,-0.171651,-0.321319
0.77813,-0.171458,-0.344071
0.898998,-0.180853,-0.433203
0.876812,-0.193221,-0.41852
0.879076,-0.222143,-0.392542
0.934982,-0.231995,-0.469533
0.793442,-0.278637,-0.34504
0.838677,-0.285349,-0.3676
0.923987,-0.285701,-0.43084
0.835922,-0.302817,-0.385753
0.803477,-0.358302,-0.407996
-0.01244,0.276764,-0.140679
0.313046,0.228819,-0.245323
1.16974,0.269546,-0.479017
1.06446,0.201095,-0.44841
1.22754,0.065324,-0.579343
1.27319,0.268068,-0.52804
1.31069,0.275887,-0.573503
1.36982,0.274222,-0.584704
1.37926,0.268599,-0.562973
1.2586,0.261769,-0.512405
1.33687,0.266335,-0.560541
1.39685,0.271896,-0.596364
1.49064,0.273248,-0.641631
0.997834,0.268108,-0.481131
1.25842,0.253728,-0.516344
1.13672,0.252008,-0.481683
1.27312,0.249082,-0.52403
1.09381,0.225051,-0.467459
1.29064,0.228701,-0.570739
1.2934,0.224221,-0.554162
1.35895,0.224902,-0.579187
1.10526,0.215621,-0.474399
1.39509,0.222706,-0.605592
1.4921,0.225613,-0.648012
1.38102,0.218101,-0.598126
1.43863,0.216446,-0.609237
1.08353,0.209194,-0.473343
1.26131,0.202811,-0.520614
1.28813,0.211249,-0.554154
1.096,0.197417,-0.449083
1.44965,0.215102,-0.652626
1.27057,0.202177,-0.548693
1.28435,0.199186,-0.559215
1.3756,0.201176,-0.595252
1.49559,0.194399,-0.658528
1.37189,0.189075,-0.610292
1.26585,0.181783,-0.558732
1.09798,0.173212,-0.470585
1.35669,0.177192,-0.590977
1.3191,0.17367,-0.579232
1.09498,0.159863,-0.481484
1.18993,0.165547,-0.539432
1.36756,0.162145,-0.588151
1.08114,0.14942,-0.440467
1.11185,0.153803,-0.474035
1.15342,0.149324,-0.492876
1.28979,0.154032,-0.565409
1.31582,0.153479,-0.571973
1.28974,0.146848,-0.571702
1.31604,0.145959,-0.572572
1.15301,0.140897,-0.518147
1.33693,0.14125,-0.581017
1.1107,0.135067,-0.494765
1.30451,0.135238,-0.562184
0.99232,0.123096,-0.401741
1.16975,0.133133,-0.526144
1.10168,0.126014,-0.491057
1.34632,0.127823,-0.611855
1.36196,0.124274,-0.596974
1.29335,0.115262,-0.574855
1.07477,0.109967,-0.48981
1.27178,0.113126,-0.575236
1.3444,0.108281,-0.601497
1.15932,0.10361,-0.524985
1.08342,0.0965161,-0.478804
1.26307,0.10186,-0.588171
1.29271,0.0989106,-0.578734
1.36502,0.0938534,-0.609624
1.28022,0.0955674,-0.58754
1.31368,0.0967037,-0.596043
1.25892,0.0939314,-0.591247
1.3103,0.0805315,-0.515455
1.36437,0.08634,-0.609569
1.25884,0.0739683,-0.547468
1.06997,0.0699909,-0.484066
1.18013,0.0728247,-0.547091
1.20562,0.0698135,-0.56555
1.17396,0.056794,-0.518998
1.13864,0.0560645,-0.513903
1.06554,0.0480239,-0.497112
1.07672,0.0475663,-0.485926
1.16571,0.0513944,-0.53922
0.984027,0.0429627,-0.445066
1.07815,0.0362056,-0.512297
1.20568,0.0343668,-0.547898
1.25419,-0.014933,-0.558492
1.4706,-0.0141062,-0.654489
1.21288,-0.0193732,-0.573102
1.12804,-0.110893,-0.46416
1.13725,-0.112095,-0.446591
1.12775,-0.117815,-0.495914
1.1298,-0.157265,-0.486226
1.04512,-0.169309,-0.516717
1.00812,-0.22205,-0.479218
1.03369,-0.275451,-0.49886
1.04264,-0.280185,-0.51343
1.12587,-0.348988,-0.501877
1.1036,-0.353383,-0.43893
0.919435,-0.366535,-0.451124
1.01375,-0.370314,-0.492271
1.05319,-0.380673,-0.514764
1.12296,-0.392245,-0.465617
1.25932,0.258084,-0.50621
1.15095,0.237809,-0.464832
1.39931,0.246878,-0.579479
1.49034,0.253384,-0.632417
1.13328,0.240441,-0.497766
1.2963,0.232682,-0.560943
1.35874,0.225632,-0.591779
1.39749,0.219887,-0.578113
1.37473,0.215698,-0.593328
1.09778,0.194474,-0.438174
1.17343,0.202356,-0.505223
1.26616,0.183036,-0.538805
1.36352,0.188338,-0.595629
1.47737,0.188051,-0.634784
1.34648,0.183218,-0.59537
1.32046,0.170571,-0.575973
1.37123,0.161526,-0.60184
1.29273,0.156566,-0.593325
1.15306,0.138728,-0.498283
1.34462,0.144561,-0.595818
1.1137,0.139814,-0.534748
1.30733,0.136975,-0.585093
1.09379,0.112322,-0.468045
1.25985,0.11117,-0.522582
1.30099,0.107997,-0.519105
1.08319,0.0911739,-0.44781
1.26427,0.100371,-0.57929
1.29526,0.08839,-0.552593
1.36823,0.0861559,-0.6194
1.36488,0.0679719,-0.623474
1.07487,0.0505582,-0.459597
1.15332,0.0590821,-0.557983
1.00263,-0.00731517,-0.443935
1.03894,-0.00652878,-0.47776
1.21518,-0.0159492,-0.560445
1.47416,-0.0194451,-0.630271
1.12979,-0.110273,-0.476322
1.10441,-0.169407,-0.523563
1.1488,-0.278825,-0.468975
1.03185,-0.285191,-0.492099
1.10552,-0.295483,-0.512254
1.10739,-0.352994,-0.481961
1.12254,-0.353391,-0.492353
1.11609,-0.389639,-0.525667
1.49532,0.259419,-0.669554
1.02998,-0.011411,-0.455459
1.11843,-0.128483,-0.522461
1.10931,-0.188991,-0.455398
1.02658,-0.282696,-0.474296
1.1519,-0.297374,-0.471061
0.0767367,0.0205375,-0.189586
1.00575,-0.13759,-0.486368
0.464552,-0.318286,-0.281232
1.12527,0.205501,-0.463068
1.3792,0.220482,-0.636162
1.31468,0.188365,-0.574132
1.37002,0.180446,-0.595514
1.31145,0.151129,-0.553622
1.36963,0.15791,-0.597677
1.33488,0.142586,-0.577919
1.081,0.0980334,-0.510954
1.29022,-0.414133,-0.49703
1.4815,0.190053,-0.633803
0.614254,-0.151132,-0.272382
0.458019,0.13154,-0.294588
0.320812,0.281426,-0.233555
0.87959,0.0976078,-0.371951
0.843375,0.131894,-0.374781
1.26271,-0.286836,-0.512061
