# .PCD v0.7 - Point Cloud Data file format
VERSION 0.7
FIELDS x y z
SIZE 4 4 4
TYPE F F F
COUNT 1 1 1
WIDTH 139
HEIGHT 1
VIEWPOINT 0 0 0 1 0 0 0
POINTS 139
DATA ascii
1.0249379 -0.17671993 -0.28334007
1.0219988 -0.21798164 -0.27055624
0.9548822 -0.1400198 -0.27551419
1.1527761 0.022050327 -0.28157964
0.931517 -0.14640489 -0.28765148
1.3359828 0.11315406 -0.21030785
0.78574979 -0.09094622 -0.28849357
0.89024919 0.15669443 -0.28086969
0.011394091 0.085204087 -0.40400517
-0.17600664 0.011478071 -0.44185224
-0.29668939 0.052383576 -0.45901999
-0.23996215 -0.44784883 -0.45402449
-0.73607451 -0.18144289 -0.46625835
1.097378 -0.41817281 -0.25814673
-0.35304174 -0.0072948909 -0.46659398
-0.53902036 -0.099325486 -0.47619393
1.1063774 -0.45928565 -0.28420329
1.377784 0.10387765 -0.24709082
-0.32107669 -0.012202624 -0.46666509
0.041800845 0.077229336 -0.42560896
-0.32741749 0.060160335 -0.45614633
1.0276326 -0.56420046 -0.26363146
-0.37756875 -0.0038457657 -0.47112903
-0.22372922 -0.43449259 -0.44584972
2.265734 0.38448137 -2.3635941
0.78144556 0.41924605 -0.21480533
1.869338 0.91949254 -2.2318027
1.4283121 1.1558095 -2.4425747
0.23741634 -0.26597607 -0.3605682
1.8311937 0.29855084 -0.73093712
2.2189019 -0.14118539 -0.8161943
-2.6610441 3.1029747 -1.3178182
1.2175518 0.79140937 -2.5427511
1.3077008 0.74266195 -2.3680961
2.2716095 0.73099101 -2.2502704
1.630993 0.57642436 -2.4109759
-0.42155474 0.13567893 -0.48284546
-0.29122183 -0.22895676 -0.44593173
0.8877601 -0.54638582 -0.35446987
0.86046576 -0.56457144 -0.3114284
-0.84328413 -1.4124181 -0.47106871
-2.8228221 2.8837781 -1.3963257
-2.7786415 1.8046634 -2.6106412
-1.5785952 1.6013117 -0.6934253
-1.2675632 1.7348224 -0.60553229
-0.70253998 1.7149868 -1.9926848
0.40725118 1.7503034 -2.3432574
-0.47546881 1.6626257 -1.8631613
-1.6716144 1.4437097 -0.63447803
-0.13060153 1.4204299 -2.1456354
0.27963078 1.2239873 -1.8630987
-0.9096837 1.1699551 -0.62168133
1.5920695 0.94669247 -1.4409379
1.1453129 0.75951713 -2.2621984
1.4787058 0.7246387 -2.6796799
-4.0306206 0.2356986 -3.8147213
-1.9473335 0.62545425 -0.62910616
1.3627707 0.55547756 -2.1332402
1.7977332 0.62367451 -1.6384546
2.734221 0.42589366 -3.2235465
2.2674351 0.78986824 -0.6995883
-2.8647234 0.31736299 -2.2554646
-2.188668 0.45827129 -0.86146486
-2.9847651 0.21600235 -1.4291224
2.4121578 0.073565163 -1.7892724
-0.41978243 0.19052514 -0.49215925
1.2444942 0.25041327 -0.41278329
2.2023849 0.2312865 -0.67594665
0.79067844 0.16847533 -0.32526997
-0.063649207 0.035151154 -0.41929239
-3.3265076 -0.48417473 -1.7705981
-1.8321664 -0.1452017 -0.64428574
-0.32762846 -0.067615166 -0.45830244
0.98403889 -0.0029862016 -0.33121485
1.2219402 0.023737369 -0.26433674
-1.6756072 -0.24160782 -0.63286769
-0.58770984 -0.17442229 -0.49128851
0.71193868 -0.098659024 -0.31627277
-0.22185545 -0.35820553 -0.49595526
1.1437944 -0.25388861 -0.26187956
-2.5453217 -0.56510353 -0.62109751
0.86604357 -0.56595612 -0.34492412
0.99091631 -0.50519145 -0.23869275
-2.4028757 3.4822314 -1.1540462
-2.6578529 3.1225348 -1.3228836
-0.7189163 1.5756269 -2.0216939
1.4025499 1.1524343 -2.361944
1.4967046 1.1170263 -2.5459716
1.8733832 0.92898315 -2.4330447
1.187958 0.81851745 -2.4161401
1.0793144 0.79639512 -2.0182521
1.3355638 0.76775032 -2.3888381
2.0166063 0.44385511 -3.2063687
2.3760886 0.7629022 -0.71796137
2.0627084 0.38757047 -2.2849572
2.6166482 0.55832726 -1.3917313
2.0163853 0.34863955 -2.2090607
2.6643689 0.67673743 -0.30864865
2.9127741 0.58964872 -0.52571809
-0.46886492 0.33736724 -0.51962405
0.74978942 0.45944071 -0.15874016
-0.47811863 0.31467929 -0.5005368
0.83296323 0.32972652 -0.28750393
-0.42746478 0.12317195 -0.47495008
-0.3399052 0.099696793 -0.47022316
0.90651858 0.14674324 -0.29177997
-0.0050937026 0.077812858 -0.40897503
2.3414166 0.0050988444 -0.91151279
-0.2641713 0.036185611 -0.46696848
-0.23000158 0.036634352 -0.47475532
1.3827952 0.12233673 -0.2833682
-0.3178238 0.0097833732 -0.46354699
-0.18077414 0.015388468 -0.4546074
1.3261157 0.10958079 -0.23131692
1.3606334 0.099492788 -0.22421905
1.1472855 0.024767978 -0.28340554
-0.53131759 -0.0952086 -0.4897874
0.79097742 -0.077944472 -0.29498839
2.0731435 -0.1363976 -0.61653996
-0.73131919 -0.1864741 -0.48074645
-0.28836039 -0.22038612 -0.46026945
0.59260345 -0.15071619 -0.29808846
0.89446396 -0.15375213 -0.26277876
1.0099335 -0.16282547 -0.30865034
1.0664748 -0.14758287 -0.26629087
3.0005465 -0.50071692 -1.4981767
1.0372543 -0.22440597 -0.30245027
-0.24877155 -0.43091258 -0.45189902
-2.6127515 -0.66724193 -0.85171008
1.0805359 -0.40658683 -0.23825996
1.0961008 -0.44777152 -0.23377283
0.84503007 -0.55402547 -0.31638372
0.92037171 -0.5412823 -0.28429171
1.022189 -0.55078548 -0.24997048
0.36869049 -1.1877006 -0.34708244
-1.7874082 -1.3151207 -0.41194695
2.8343055 1.0464793 -0.78993732
2.6546407 0.7727024 -0.43225488
2.6515703 -0.34413189 -0.6761089
