# .PCD v0.7 - Point Cloud Data file format
VERSION 0.7
FIELDS x y z
SIZE 4 4 4
TYPE F F F
COUNT 1 1 1
WIDTH 67
HEIGHT 1
VIEWPOINT 0 0 0 1 0 0 0
POINTS 67
DATA ascii
-4.2903137 7.4282675 8.1432896
2.4304705 0.31543958 6.2627416
2.2644067 0.07895644 6.1558895
2.443733 0.49959978 6.2960649
0.37165979 -0.89797604 6.0330915
0.12251952 -1.1966088 5.816216
-0.15693083 -1.4649687 5.4831161
0.1835584 3.3129234 8.1204615
2.1210887 -0.62676781 6.6818557
2.1042995 0.5888803 6.6870904
1.754868 0.73854679 6.6640229
0.37539047 -0.7342335 6.2066584
2.3733752 0.8345325 5.8145466
2.2683122 -0.13997212 6.6223483
0.62731296 -1.8531388 5.3659387
-0.52230233 -0.61093622 6.0428123
2.6790617 -1.0747395 5.7120233
2.5960681 1.0854522 6.1741996
2.2240987 -0.47473738 5.228096
2.7899585 -0.90007961 5.836812
0.0067853909 -0.76426703 6.4678392
0.096553601 -2.2252665 5.2384539
-4.1345968 9.0819016 8.4491606
-2.8832722 12.52919 9.0727224
-2.3859406 -1.8130568 6.6628056
0.11330819 -2.1832528 5.4302363
2.3892679 -1.7013868 5.5073233
1.8760647 -1.2411804 5.7945595
3.4142344 4.7503467 9.8989582
2.6607659 -0.33019203 6.1437058
-10.34696 15.218736 17.698524
2.1914294 2.2941492 7.8579693
2.5484252 0.86199224 6.396224
2.208729 1.7199264 6.6183572
1.2207216 -1.9017541 4.1322699
-0.63877428 -4.4673023 2.4646106
-3.4556277 5.7557597 7.3644857
-1.3424342 1.6326562 4.6990857
0.025351547 -2.2921145 5.489747
2.2612042 -0.12372627 7.0069389
0.065668926 -1.8874143 5.5241556
0.15360519 -1.5408212 5.7214904
0.6564033 -1.4262803 5.7094669
2.0900586 -0.94050562 5.9657054
2.804868 -0.61609054 6.0528097
2.792043 -0.62824804 6.0099049
2.906729 -0.52040082 6.0849428
2.4363036 -0.68981421 5.8861508
1.8581774 -0.63334543 5.8090129
1.7902226 0.73136961 6.6549692
2.1205239 -0.022486227 6.1197214
2.3306487 0.065141357 6.1241598
2.4731905 0.17278072 6.1976395
2.5025659 0.67353469 6.3938336
2.5690634 0.97029543 6.1862669
2.4149382 0.45533016 5.7675996
2.3341379 1.6002429 6.347785
2.5393617 1.4042069 6.1920218
-2.157783 -0.11637964 4.480135
-4.4643435 7.7479439 8.4176044
-4.7201056 8.475625 8.5440645
-2.7913764 2.579869 5.6214681
-8.8020658 21.436636 14.859201
-4.0749745 8.4522419 8.3002348
-0.90844077 -3.370491 2.574393
-0.67046762 -2.0161078 2.9180436
3.8304243 -0.4025988 6.2753901
